1499
535585.070 6850652.170 1121.120
535584.460 6850652.650 1121.090
535583.840 6850653.120 1121.050
535583.200 6850653.620 1121.120
535582.610 6850654.070 1121.190
535582.000 6850654.560 1121.380
535581.370 6850655.040 1121.430
535580.750 6850655.520 1121.560
535580.140 6850655.990 1121.420
535591.550 6850646.380 1121.370
535590.920 6850646.870 1121.390
535590.290 6850647.350 1121.450
535589.690 6850647.820 1121.470
535589.060 6850648.310 1121.440
535588.490 6850648.760 1121.460
535587.830 6850649.260 1121.530
535587.220 6850649.740 1121.520
535586.620 6850650.200 1121.490
535585.970 6850650.700 1121.390
535585.380 6850651.170 1121.350
535584.760 6850651.650 1121.330
535584.140 6850652.130 1121.210
535583.560 6850652.590 1121.150
535582.920 6850653.080 1121.140
535582.310 6850653.550 1121.240
535581.690 6850654.040 1121.440
535581.080 6850654.500 1121.550
535580.460 6850654.990 1121.580
535579.820 6850655.480 1121.570
535584.900 6850650.660 1121.590
535584.270 6850651.150 1121.470
535583.670 6850651.620 1121.310
535583.050 6850652.100 1121.380
535582.420 6850652.590 1121.360
535581.820 6850653.050 1121.510
535581.180 6850653.550 1121.580
535580.590 6850654.010 1121.650
535579.980 6850654.480 1121.720
535579.340 6850654.980 1121.750
535593.470 6850644.000 1121.220
535592.850 6850644.480 1121.230
535592.260 6850644.940 1121.330
535591.630 6850645.430 1121.400
535591.040 6850645.880 1121.470
535590.410 6850646.380 1121.560
535589.810 6850646.840 1121.590
535589.210 6850647.310 1121.630
535588.560 6850647.820 1121.710
535587.980 6850648.270 1121.760
535587.340 6850648.760 1121.720
535586.730 6850649.240 1121.770
535586.130 6850649.710 1121.630
535585.500 6850650.190 1121.610
535595.430 6850641.310 1121.180
535594.790 6850641.810 1121.270
535594.180 6850642.280 1121.640
535593.560 6850642.760 1121.770
535592.920 6850643.260 1121.980
535592.320 6850643.730 1121.760
535591.710 6850644.200 1121.720
535591.080 6850644.690 1121.760
535590.490 6850645.150 1121.820
535589.850 6850645.650 1121.980
535589.250 6850646.120 1122.130
535588.630 6850646.600 1122.220
535588.030 6850647.060 1122.250
535587.430 6850647.530 1122.370
535586.790 6850648.020 1122.360
535586.200 6850648.480 1122.210
535585.590 6850648.960 1122.240
535584.960 6850649.440 1122.110
535584.370 6850649.910 1121.820
535583.740 6850650.390 1121.780
535583.130 6850650.870 1121.750
535582.510 6850651.350 1121.910
535581.910 6850651.810 1121.910
535581.300 6850652.290 1121.970
535580.670 6850652.770 1121.790
535580.060 6850653.250 1121.880
535579.430 6850653.740 1121.950
535578.800 6850654.230 1122.020
535578.200 6850654.690 1122.020
535597.340 6850638.510 1121.730
535596.720 6850638.990 1121.500
535596.120 6850639.450 1121.400
535595.470 6850639.960 1121.420
535594.880 6850640.420 1121.490
535594.230 6850640.920 1121.750
535593.620 6850641.400 1121.950
535593.020 6850641.860 1122.090
535592.390 6850642.350 1122.230
535591.800 6850642.810 1122.190
535591.150 6850643.310 1122.230
535590.550 6850643.780 1122.300
535589.950 6850644.250 1122.220
535589.300 6850644.750 1122.340
535588.700 6850645.220 1122.330
535588.070 6850645.710 1122.390
535587.460 6850646.180 1122.810
535586.860 6850646.650 1123.020
535586.220 6850647.140 1122.970
535585.630 6850647.600 1122.840
535585.010 6850648.080 1122.610
535584.420 6850648.540 1122.460
535583.800 6850649.020 1122.730
535583.170 6850649.520 1122.760
535582.580 6850649.970 1122.550
535581.970 6850650.450 1122.500
535581.350 6850650.930 1122.600
535580.750 6850651.390 1122.470
535580.120 6850651.880 1122.250
535579.510 6850652.360 1122.180
535578.900 6850652.840 1122.130
535578.300 6850653.300 1122.080
535577.670 6850653.790 1122.120
535598.550 6850636.590 1122.260
535597.930 6850637.080 1122.100
535597.350 6850637.540 1121.960
535596.720 6850638.030 1121.730
535596.120 6850638.490 1121.610
535595.500 6850638.970 1121.560
535594.860 6850639.460 1121.670
535594.280 6850639.910 1121.700
535593.640 6850640.420 1122.030
535593.030 6850640.880 1122.260
535592.390 6850641.390 1122.420
535591.770 6850641.870 1122.490
535591.160 6850642.340 1122.510
535590.540 6850642.830 1122.540
535589.940 6850643.280 1122.660
535589.320 6850643.770 1122.780
535588.710 6850644.250 1122.790
535588.090 6850644.730 1122.690
535587.460 6850645.220 1122.930
535586.870 6850645.680 1123.280
535586.220 6850646.180 1123.410
535585.600 6850646.660 1123.290
535585.020 6850647.110 1123.220
535584.370 6850647.620 1123.330
535583.780 6850648.080 1123.570
535583.150 6850648.570 1123.330
535582.560 6850649.020 1123.030
535581.950 6850649.500 1123.240
535581.320 6850649.990 1123.320
535580.750 6850650.430 1123.060
535580.110 6850650.930 1122.640
535579.520 6850651.390 1122.530
535578.920 6850651.860 1122.320
535578.280 6850652.350 1122.330
535577.710 6850652.800 1122.280
535577.060 6850653.300 1122.130
535599.700 6850634.680 1123.030
535599.060 6850635.180 1122.680
535598.480 6850635.630 1122.350
535597.860 6850636.110 1122.230
535597.250 6850636.590 1122.160
535596.640 6850637.060 1122.050
535596.040 6850637.530 1121.860
535595.450 6850637.990 1121.840
535594.820 6850638.480 1121.740
535594.210 6850638.950 1121.880
535593.600 6850639.420 1122.030
535592.950 6850639.930 1122.490
535592.370 6850640.380 1122.810
535591.730 6850640.880 1122.930
535591.120 6850641.360 1122.990
535590.500 6850641.830 1122.920
535589.890 6850642.310 1122.990
535589.290 6850642.780 1123.060
535588.650 6850643.270 1123.200
535588.040 6850643.740 1123.240
535587.410 6850644.240 1123.300
535586.770 6850644.730 1123.560
535586.200 6850645.180 1123.710
535585.560 6850645.680 1123.720
535584.980 6850646.120 1123.850
535584.330 6850646.620 1124.330
535583.710 6850647.110 1124.410
535583.140 6850647.560 1124.040
535582.480 6850648.070 1123.970
535581.890 6850648.530 1124.040
535581.250 6850649.020 1123.840
535580.650 6850649.480 1123.640
535580.060 6850649.950 1123.350
535579.430 6850650.440 1123.050
535578.830 6850650.910 1122.940
535578.220 6850651.380 1122.660
535577.620 6850651.850 1122.600
535577.000 6850652.330 1122.460
535576.390 6850652.800 1122.350
535594.320 6850637.630 1121.880
535593.730 6850638.080 1121.990
535593.110 6850638.570 1122.210
535592.490 6850639.050 1122.820
535591.880 6850639.520 1123.240
535591.240 6850640.010 1123.420
535590.640 6850640.480 1123.370
535590.040 6850640.950 1123.310
535589.410 6850641.430 1123.400
535588.810 6850641.900 1123.420
535588.180 6850642.390 1123.500
535587.570 6850642.870 1123.630
535586.960 6850643.350 1123.680
535586.350 6850643.820 1123.720
535585.730 6850644.300 1124.480
535585.100 6850644.790 1124.490
535584.490 6850645.260 1124.490
535583.850 6850645.760 1124.550
535583.240 6850646.240 1124.800
535582.640 6850646.700 1124.490
535582.030 6850647.170 1124.190
535581.440 6850647.630 1124.410
535580.800 6850648.130 1124.340
535580.180 6850648.610 1124.010
535579.580 6850649.080 1123.830
535578.980 6850649.550 1123.580
535578.360 6850650.030 1123.190
535577.730 6850650.510 1123.100
535577.130 6850650.980 1122.930
535576.510 6850651.470 1122.790
535575.910 6850651.940 1122.580
535575.300 6850652.410 1122.400
535599.220 6850633.810 1123.300
535598.630 6850634.270 1122.880
535598.010 6850634.750 1122.620
535597.390 6850635.240 1122.480
535596.770 6850635.720 1122.300
535596.160 6850636.190 1122.220
535595.550 6850636.670 1122.140
535594.950 6850637.130 1122.020
535583.280 6850644.920 1124.740
535582.700 6850645.370 1124.630
535582.070 6850645.850 1124.540
535581.440 6850646.340 1124.440
535580.840 6850646.810 1124.380
535580.190 6850647.310 1124.690
535579.600 6850647.770 1124.330
535578.990 6850648.260 1124.030
535578.400 6850648.710 1123.690
535577.780 6850649.190 1123.550
535577.160 6850649.680 1123.410
535576.570 6850650.140 1123.190
535575.930 6850650.630 1123.090
535575.340 6850651.090 1122.970
535574.710 6850651.580 1122.670
535598.040 6850633.440 1123.100
535597.430 6850633.910 1122.590
535596.810 6850634.400 1122.540
535596.230 6850634.860 1122.390
535595.570 6850635.360 1122.380
535594.970 6850635.830 1122.280
535594.350 6850636.310 1122.250
535593.730 6850636.800 1122.140
535593.130 6850637.260 1122.330
535592.490 6850637.760 1122.560
535591.880 6850638.230 1122.940
535591.270 6850638.710 1123.460
535590.630 6850639.200 1123.590
535590.040 6850639.660 1123.630
535589.410 6850640.150 1123.690
535588.820 6850640.610 1123.790
535588.210 6850641.080 1123.860
535587.580 6850641.570 1123.960
535586.990 6850642.030 1124.050
535586.360 6850642.520 1124.190
535585.750 6850642.990 1124.430
535585.120 6850643.480 1125.080
535584.510 6850643.960 1124.890
535583.900 6850644.430 1124.810
535573.660 6850651.550 1122.590
535597.620 6850632.920 1122.650
535596.990 6850633.410 1122.550
535596.360 6850633.900 1122.410
535595.760 6850634.370 1122.310
535595.120 6850634.860 1122.260
535594.540 6850635.310 1122.210
535593.930 6850635.790 1122.300
535593.300 6850636.270 1122.400
535592.690 6850636.750 1122.450
535592.060 6850637.240 1122.620
535591.460 6850637.710 1123.090
535590.810 6850638.210 1123.420
535590.200 6850638.690 1123.640
535589.600 6850639.150 1123.650
535588.950 6850639.660 1123.730
535588.380 6850640.100 1123.900
535587.720 6850640.610 1124.050
535587.130 6850641.070 1124.230
535586.520 6850641.550 1124.350
535585.890 6850642.030 1124.570
535585.300 6850642.490 1125.260
535584.660 6850642.990 1125.320
535584.060 6850643.450 1125.230
535583.470 6850643.920 1125.040
535582.830 6850644.410 1124.880
535582.250 6850644.860 1124.780
535581.610 6850645.370 1124.760
535581.020 6850645.820 1124.620
535580.400 6850646.310 1124.390
535579.770 6850646.790 1124.390
535579.180 6850647.240 1124.300
535578.550 6850647.740 1124.150
535577.960 6850648.210 1123.880
535577.320 6850648.690 1123.670
535576.700 6850649.180 1123.560
535576.110 6850649.640 1123.390
535575.490 6850650.120 1123.280
535574.900 6850650.580 1123.130
535574.270 6850651.080 1122.870
535597.030 6850632.330 1122.560
535596.400 6850632.820 1122.410
535595.800 6850633.290 1122.330
535595.190 6850633.760 1122.180
535594.570 6850634.240 1122.110
535593.960 6850634.710 1122.240
535593.320 6850635.210 1122.320
535592.720 6850635.680 1122.470
535592.080 6850636.180 1122.600
535591.470 6850636.640 1122.690
535590.870 6850637.110 1123.140
535590.250 6850637.600 1123.370
535589.630 6850638.080 1123.550
535589.000 6850638.570 1123.620
535588.400 6850639.040 1123.790
535587.780 6850639.520 1124.090
535587.140 6850640.010 1124.350
535586.530 6850640.480 1124.490
535585.900 6850640.970 1124.860
535585.270 6850641.470 1125.330
535584.690 6850641.910 1125.510
535584.040 6850642.420 1125.540
535583.460 6850642.870 1125.680
535582.830 6850643.360 1125.460
535582.230 6850643.830 1125.190
535581.640 6850644.280 1125.020
535581.010 6850644.780 1125.030
535580.410 6850645.250 1124.860
535579.800 6850645.710 1124.510
535579.190 6850646.190 1124.390
535578.600 6850646.650 1124.340
535577.960 6850647.150 1124.140
535577.360 6850647.610 1123.980
535576.730 6850648.100 1123.780
535576.140 6850648.570 1123.590
535575.530 6850649.040 1123.550
535574.900 6850649.530 1123.470
535574.300 6850649.990 1123.340
535573.660 6850650.500 1123.070
535573.060 6850650.960 1122.810
535596.480 6850631.690 1122.370
535595.870 6850632.160 1122.240
535595.270 6850632.630 1122.070
535594.650 6850633.110 1122.090
535594.040 6850633.580 1122.050
535593.430 6850634.060 1122.160
535592.800 6850634.550 1122.250
535592.200 6850635.020 1122.440
535591.580 6850635.500 1122.650
535590.950 6850635.980 1122.820
535590.340 6850636.460 1123.090
535589.700 6850636.960 1123.330
535589.060 6850637.450 1123.520
535588.440 6850637.930 1123.750
535587.840 6850638.400 1123.990
535587.240 6850638.870 1124.370
535586.610 6850639.360 1124.770
535585.990 6850639.830 1124.920
535585.360 6850640.320 1125.260
535584.750 6850640.790 1125.540
535584.130 6850641.280 1125.620
535583.520 6850641.750 1125.720
535582.890 6850642.250 1125.950
535582.270 6850642.720 1125.850
535581.650 6850643.210 1125.710
535581.070 6850643.660 1125.590
535580.450 6850644.150 1125.330
535579.850 6850644.610 1125.080
535579.230 6850645.090 1124.820
535578.630 6850645.560 1124.570
535578.030 6850646.020 1124.420
535577.420 6850646.500 1124.330
535576.810 6850646.970 1124.210
535576.200 6850647.450 1123.940
535575.590 6850647.920 1123.790
535574.990 6850648.390 1123.790
535574.370 6850648.870 1123.740
535573.760 6850649.350 1123.590
535573.140 6850649.830 1123.440
535572.530 6850650.310 1123.960
535595.300 6850631.340 1122.060
535594.730 6850631.770 1121.950
535594.100 6850632.270 1121.910
535593.500 6850632.740 1121.930
535592.890 6850633.210 1122.010
535592.260 6850633.690 1122.200
535591.670 6850634.160 1122.450
535591.030 6850634.660 1122.650
535590.420 6850635.130 1122.820
535589.810 6850635.600 1123.030
535589.170 6850636.090 1123.350
535588.560 6850636.570 1123.630
535587.930 6850637.060 1123.970
535587.330 6850637.520 1124.520
535586.710 6850638.010 1124.630
535586.060 6850638.510 1125.460
535585.460 6850638.980 1125.340
535584.820 6850639.470 1125.430
535584.220 6850639.940 1125.850
535583.600 6850640.430 1125.840
535582.980 6850640.900 1125.850
535582.390 6850641.360 1126.050
535581.740 6850641.870 1126.110
535581.150 6850642.320 1125.890
535580.540 6850642.800 1125.670
535579.930 6850643.280 1125.400
535579.320 6850643.750 1125.260
535578.670 6850644.250 1125.090
535578.100 6850644.700 1124.780
535577.470 6850645.190 1124.640
535576.880 6850645.650 1124.440
535576.260 6850646.130 1124.330
535575.630 6850646.610 1124.120
535575.060 6850647.060 1123.990
535574.430 6850647.550 1123.980
535573.830 6850648.010 1123.990
535573.220 6850648.490 1123.780
535572.580 6850648.990 1124.590
535572.010 6850649.430 1124.410
535571.370 6850649.930 1123.990
535594.760 6850631.000 1121.990
535594.160 6850631.460 1121.840
535593.530 6850631.960 1121.810
535592.950 6850632.410 1121.830
535592.300 6850632.920 1121.910
535591.700 6850633.380 1122.230
535591.090 6850633.850 1122.420
535590.460 6850634.340 1122.660
535589.870 6850634.800 1122.960
535589.230 6850635.300 1123.230
535588.630 6850635.770 1123.650
535588.010 6850636.240 1124.170
535587.350 6850636.750 1124.850
535586.770 6850637.210 1125.080
535586.120 6850637.710 1125.430
535585.510 6850638.180 1125.540
535584.910 6850638.650 1125.550
535584.290 6850639.140 1125.610
535583.700 6850639.600 1125.860
535583.040 6850640.100 1125.940
535582.440 6850640.570 1125.990
535581.800 6850641.070 1126.390
535581.180 6850641.550 1126.120
535580.610 6850642.000 1126.030
535579.960 6850642.500 1125.820
535579.400 6850642.930 1125.540
535578.770 6850643.430 1125.280
535578.150 6850643.910 1125.050
535577.560 6850644.370 1124.830
535576.910 6850644.870 1124.730
535576.330 6850645.330 1124.550
535575.690 6850645.820 1124.360
535575.090 6850646.300 1124.230
535574.490 6850646.760 1124.190
535573.860 6850647.250 1124.110
535573.260 6850647.710 1124.040
535572.640 6850648.200 1123.880
535572.030 6850648.670 1124.580
535571.440 6850649.120 1124.290
535570.810 6850649.620 1124.080
535589.860 6850633.780 1122.830
535589.260 6850634.250 1123.260
535588.620 6850634.740 1123.720
535588.020 6850635.210 1124.080
535587.380 6850635.710 1124.950
535586.770 6850636.170 1125.250
535586.180 6850636.640 1125.490
535585.530 6850637.140 1125.650
535584.950 6850637.590 1125.700
535584.320 6850638.080 1125.760
535583.710 6850638.550 1125.800
535583.110 6850639.020 1125.950
535582.470 6850639.520 1126.060
535581.880 6850639.980 1126.100
535581.240 6850640.470 1126.100
535580.640 6850640.940 1126.050
535580.040 6850641.410 1126.160
535579.400 6850641.910 1125.890
535578.810 6850642.370 1125.590
535578.180 6850642.850 1125.420
535577.560 6850643.350 1125.190
535576.970 6850643.800 1124.950
535576.350 6850644.290 1124.790
535575.780 6850644.730 1124.650
535575.130 6850645.230 1124.450
535574.530 6850645.700 1124.360
535573.920 6850646.180 1124.340
535573.300 6850646.660 1124.190
535572.700 6850647.120 1124.010
535572.040 6850647.640 1124.420
535571.460 6850648.090 1124.470
535570.830 6850648.580 1124.340
535570.230 6850649.050 1124.160
535594.220 6850630.400 1121.690
535593.590 6850630.880 1121.610
535592.980 6850631.360 1121.700
535592.370 6850631.830 1121.730
535591.740 6850632.330 1121.870
535591.110 6850632.810 1122.190
535590.510 6850633.280 1122.360
535582.640 6850638.210 1126.450
535582.020 6850638.700 1126.430
535581.410 6850639.170 1126.310
535580.810 6850639.640 1126.280
535580.190 6850640.130 1126.030
535579.590 6850640.580 1125.840
535578.980 6850641.060 1125.830
535578.360 6850641.540 1125.640
535577.750 6850642.020 1125.470
535577.150 6850642.480 1125.270
535576.530 6850642.970 1125.140
535575.920 6850643.450 1125.020
535575.310 6850643.920 1124.810
535574.670 6850644.420 1124.620
535574.060 6850644.890 1124.490
535573.450 6850645.360 1124.380
535572.850 6850645.830 1124.260
535572.250 6850646.300 1124.230
535571.630 6850646.780 1124.400
535571.010 6850647.260 1124.580
535570.400 6850647.730 1124.310
535569.790 6850648.220 1124.180
535593.130 6850630.070 1121.470
535592.520 6850630.540 1121.620
535591.920 6850631.010 1121.730
535591.310 6850631.480 1121.650
535590.700 6850631.960 1121.940
535590.060 6850632.460 1122.330
535589.440 6850632.930 1123.010
535588.810 6850633.420 1123.610
535588.160 6850633.930 1124.420
535587.560 6850634.400 1124.450
535586.930 6850634.880 1125.330
535586.300 6850635.370 1125.710
535585.690 6850635.850 1125.890
535585.070 6850636.330 1125.820
535584.470 6850636.800 1125.900
535583.850 6850637.270 1126.060
535583.260 6850637.730 1126.020
535577.220 6850641.150 1125.570
535576.640 6850641.600 1125.400
535576.010 6850642.090 1125.190
535575.400 6850642.580 1124.990
535574.790 6850643.050 1124.840
535574.180 6850643.520 1124.730
535573.580 6850643.990 1124.610
535572.940 6850644.480 1124.560
535572.330 6850644.960 1124.490
535571.710 6850645.440 1124.440
535571.100 6850645.920 1124.340
535570.500 6850646.390 1124.170
535569.870 6850646.870 1124.090
535569.280 6850647.330 1124.110
535568.660 6850647.820 1124.070
535592.640 6850629.170 1121.340
535592.040 6850629.640 1121.430
535591.420 6850630.120 1121.400
535590.780 6850630.620 1121.550
535590.160 6850631.100 1121.960
535589.510 6850631.610 1123.000
535588.910 6850632.070 1123.350
535588.300 6850632.540 1124.130
535587.660 6850633.040 1124.540
535587.030 6850633.520 1125.350
535586.400 6850634.010 1125.610
535585.790 6850634.490 1126.040
535585.170 6850634.970 1126.190
535584.540 6850635.460 1126.170
535583.940 6850635.930 1126.410
535583.300 6850636.420 1126.200
535582.730 6850636.870 1126.210
535582.080 6850637.370 1126.220
535581.480 6850637.830 1126.590
535580.850 6850638.330 1126.560
535580.260 6850638.790 1126.350
535579.690 6850639.230 1126.180
535579.050 6850639.730 1126.070
535578.450 6850640.200 1125.820
535577.850 6850640.670 1125.700
535574.400 6850642.560 1124.950
535573.780 6850643.040 1124.720
535573.190 6850643.500 1124.660
535572.550 6850644.000 1124.580
535571.970 6850644.450 1124.550
535571.330 6850644.950 1124.590
535570.730 6850645.410 1124.510
535570.130 6850645.880 1124.250
535569.470 6850646.390 1124.110
535568.900 6850646.840 1123.970
535568.270 6850647.340 1123.860
535592.270 6850628.670 1121.290
535591.660 6850629.140 1121.330
535591.020 6850629.650 1121.420
535590.410 6850630.110 1121.680
535589.780 6850630.600 1123.050
535589.140 6850631.100 1123.450
535588.520 6850631.580 1124.250
535587.870 6850632.080 1124.590
535587.260 6850632.560 1124.660
535586.630 6850633.050 1125.790
535586.000 6850633.530 1125.790
535585.420 6850633.990 1126.180
535584.780 6850634.490 1126.300
535584.160 6850634.960 1126.570
535583.550 6850635.430 1126.410
535582.930 6850635.920 1126.190
535582.360 6850636.370 1126.160
535581.710 6850636.870 1126.220
535581.080 6850637.350 1126.670
535580.490 6850637.820 1126.590
535579.860 6850638.320 1126.430
535579.270 6850638.770 1126.230
535578.640 6850639.260 1126.030
535578.050 6850639.710 1125.860
535577.440 6850640.200 1125.690
535576.820 6850640.680 1125.580
535576.240 6850641.130 1125.480
535575.600 6850641.630 1125.320
535575.020 6850642.070 1125.190
535572.020 6850643.590 1124.680
535571.410 6850644.060 1125.040
535570.780 6850644.560 1124.840
535570.210 6850645.000 1124.530
535569.580 6850645.480 1124.360
535568.960 6850645.970 1124.180
535568.360 6850646.440 1123.920
535567.730 6850646.930 1123.770
535591.700 6850628.300 1121.190
535591.110 6850628.760 1121.380
535590.460 6850629.250 1121.760
535589.850 6850629.730 1122.840
535589.230 6850630.220 1123.330
535588.580 6850630.720 1124.460
535587.980 6850631.180 1124.880
535587.340 6850631.680 1124.990
535586.720 6850632.150 1125.530
535586.100 6850632.640 1125.710
535585.500 6850633.100 1125.790
535584.870 6850633.590 1126.400
535584.230 6850634.090 1126.720
535583.640 6850634.550 1126.810
535583.000 6850635.050 1126.530
535582.390 6850635.520 1126.060
535581.790 6850635.990 1126.200
535581.160 6850636.480 1126.890
535580.580 6850636.920 1126.630
535579.940 6850637.430 1126.370
535579.330 6850637.900 1126.260
535578.740 6850638.350 1126.050
535578.100 6850638.850 1125.980
535577.510 6850639.310 1125.840
535576.880 6850639.810 1125.690
535576.270 6850640.280 1125.600
535575.660 6850640.760 1125.520
535575.040 6850641.230 1125.460
535574.430 6850641.710 1125.380
535573.820 6850642.200 1125.100
535573.240 6850642.640 1124.860
535572.630 6850643.110 1124.630
535569.210 6850644.800 1124.450
535568.610 6850645.270 1124.350
535567.990 6850645.750 1124.030
535567.380 6850646.220 1123.790
535566.780 6850646.700 1123.710
535590.720 6850628.080 1121.470
535590.090 6850628.570 1121.860
535589.470 6850629.050 1122.690
535588.840 6850629.540 1123.540
535588.210 6850630.030 1124.730
535587.610 6850630.490 1125.000
535586.960 6850630.990 1125.160
535586.350 6850631.460 1125.580
535585.750 6850631.930 1125.770
535585.140 6850632.410 1125.800
535584.520 6850632.880 1126.600
535583.890 6850633.380 1126.410
535583.270 6850633.870 1126.430
535582.660 6850634.340 1126.170
535582.060 6850634.800 1125.940
535581.460 6850635.270 1126.040
535580.820 6850635.770 1126.910
535580.210 6850636.230 1126.670
535579.580 6850636.730 1126.470
535578.970 6850637.210 1126.190
535578.380 6850637.670 1125.990
535577.760 6850638.150 1125.810
535577.170 6850638.610 1125.740
535576.540 6850639.090 1125.640
535575.920 6850639.580 1125.540
535575.320 6850640.050 1125.440
535574.700 6850640.530 1125.520
535574.080 6850641.000 1125.410
535573.460 6850641.490 1125.290
535572.870 6850641.950 1124.850
535572.260 6850642.430 1124.760
535571.640 6850642.910 1124.840
535571.010 6850643.400 1125.270
535570.410 6850643.880 1125.010
535569.810 6850644.340 1124.560
535569.210 6850643.580 1124.460
535568.570 6850644.070 1124.430
535567.990 6850644.530 1124.190
535567.360 6850645.010 1124.060
535566.740 6850645.500 1123.850
535566.170 6850645.940 1123.680
535590.120 6850627.320 1121.530
535589.480 6850627.810 1121.940
535588.850 6850628.300 1123.420
535588.190 6850628.810 1124.580
535587.580 6850629.280 1125.040
535586.970 6850629.770 1125.150
535586.330 6850630.260 1125.590
535585.730 6850630.720 1126.100
535585.110 6850631.200 1125.900
535584.530 6850631.650 1125.640
535583.280 6850632.630 1126.340
535582.690 6850633.080 1126.170
535582.060 6850633.570 1125.940
535581.460 6850634.040 1125.800
535580.850 6850634.520 1125.820
535580.210 6850635.020 1126.800
535579.610 6850635.480 1126.670
535578.990 6850635.960 1126.390
535578.420 6850636.410 1126.100
535577.780 6850636.910 1125.990
535577.160 6850637.380 1125.840
535576.540 6850637.870 1125.700
535575.920 6850638.350 1125.590
535575.330 6850638.810 1125.490
535574.700 6850639.310 1125.360
535574.110 6850639.760 1125.260
535573.510 6850640.230 1125.100
535572.880 6850640.720 1124.920
535572.280 6850641.180 1124.760
535571.650 6850641.680 1124.950
535571.040 6850642.150 1124.810
535570.430 6850642.630 1124.830
535569.790 6850643.120 1124.740
535571.280 6850641.070 1125.150
535570.690 6850641.520 1124.860
535570.060 6850642.020 1124.800
535569.430 6850642.510 1124.740
535568.860 6850642.960 1124.520
535568.210 6850643.460 1124.300
535567.630 6850643.910 1124.120
535566.980 6850644.420 1123.930
535566.380 6850644.880 1123.790
535565.780 6850645.350 1123.690
535589.120 6850627.200 1122.240
535588.490 6850627.690 1123.020
535587.840 6850628.190 1123.970
535587.240 6850628.660 1124.740
535586.580 6850629.160 1125.520
535585.950 6850629.650 1125.860
535585.360 6850630.120 1126.150
535584.720 6850630.620 1125.920
535584.140 6850631.070 1125.790
535583.510 6850631.560 1125.520
535582.910 6850632.020 1125.440
535582.300 6850632.490 1126.010
535581.680 6850632.980 1125.870
535581.110 6850633.420 1125.710
535580.470 6850633.920 1125.680
535579.860 6850634.390 1125.860
535579.250 6850634.860 1126.560
535578.620 6850635.360 1126.280
535578.060 6850635.800 1125.400
535577.410 6850636.300 1125.900
535576.800 6850636.770 1125.750
535576.200 6850637.240 1125.760
535575.580 6850637.720 1125.600
535574.980 6850638.190 1125.470
535574.350 6850638.680 1125.420
535573.740 6850639.160 1125.120
535573.130 6850639.630 1124.960
535572.480 6850640.130 1124.850
535571.900 6850640.590 1124.940
535573.830 6850637.910 1125.200
535573.240 6850638.360 1125.250
535572.620 6850638.850 1124.810
535572.010 6850639.330 1124.850
535571.410 6850639.790 1125.080
535570.770 6850640.290 1125.140
535570.170 6850640.750 1124.960
535569.540 6850641.250 1124.870
535568.910 6850641.740 1124.840
535568.330 6850642.190 1124.680
535567.700 6850642.680 1124.470
535567.120 6850643.130 1124.250
535566.480 6850643.620 1124.060
535565.870 6850644.100 1123.860
535565.290 6850644.560 1123.640
535564.640 6850645.060 1123.490
535588.600 6850626.430 1122.340
535587.980 6850626.900 1122.480
535587.330 6850627.410 1123.860
535587.350 6850627.400 1122.660
535586.740 6850627.860 1124.070
535586.120 6850628.350 1124.830
535585.470 6850628.850 1125.920
535584.840 6850629.340 1126.900
535584.230 6850629.820 1126.020
535583.630 6850630.280 1125.850
535583.010 6850630.760 1125.650
535582.400 6850631.250 1125.370
535581.790 6850631.710 1125.330
535581.150 6850632.210 1125.630
535580.570 6850632.660 1125.550
535579.930 6850633.160 1125.540
535579.340 6850633.620 1125.460
535578.730 6850634.090 1125.260
535578.110 6850634.580 1125.300
535577.530 6850635.030 1125.100
535576.900 6850635.520 1125.040
535576.290 6850635.990 1125.140
535575.670 6850636.470 1125.710
535575.050 6850636.950 1125.560
535574.480 6850637.400 1125.350
535577.780 6850633.590 1124.770
535577.180 6850634.060 1124.750
535576.570 6850634.540 1124.740
535575.960 6850635.000 1124.670
535575.340 6850635.490 1124.670
535574.730 6850635.970 1125.280
535574.140 6850636.430 1124.900
535573.510 6850636.920 1125.170
535572.910 6850637.380 1124.870
535572.300 6850637.850 1124.760
535571.670 6850638.340 1124.940
535571.090 6850638.790 1125.180
535570.450 6850639.290 1125.450
535569.830 6850639.770 1125.400
535569.220 6850640.250 1125.170
535568.620 6850640.710 1124.950
535568.020 6850641.180 1124.910
535567.390 6850641.670 1124.810
535566.780 6850642.150 1124.550
535566.150 6850642.650 1124.260
535565.530 6850643.120 1124.020
535564.950 6850643.570 1123.850
535564.340 6850644.050 1123.670
535563.730 6850644.530 1123.460
535587.700 6850625.880 1122.340
535587.070 6850626.380 1122.460
535586.430 6850626.870 1123.690
535585.770 6850627.370 1124.670
535585.170 6850627.840 1124.800
535584.540 6850628.340 1124.990
535583.910 6850628.820 1125.740
535583.310 6850629.290 1125.610
535582.720 6850629.750 1125.440
535582.090 6850630.240 1125.420
535581.480 6850630.710 1125.280
535580.880 6850631.190 1125.070
535580.250 6850631.670 1125.000
535579.620 6850632.160 1125.030
535579.020 6850632.630 1124.910
535578.420 6850633.100 1124.770
535582.870 6850628.330 1125.460
535582.220 6850628.840 1125.380
535581.630 6850629.300 1125.440
535580.990 6850629.800 1125.270
535580.390 6850630.270 1125.150
535579.780 6850630.740 1124.950
535579.170 6850631.220 1124.750
535578.570 6850631.680 1124.670
535577.950 6850632.170 1124.620
535577.340 6850632.640 1124.650
535576.740 6850633.110 1124.620
535576.100 6850633.610 1124.640
535575.510 6850634.060 1124.610
535574.860 6850634.560 1124.590
535574.270 6850635.030 1124.560
535573.660 6850635.500 1124.540
535573.020 6850636.000 1124.990
535572.430 6850636.450 1124.820
535571.790 6850636.950 1124.850
535571.200 6850637.410 1125.050
535570.580 6850637.890 1125.500
535569.970 6850638.370 1125.550
535569.380 6850638.830 1125.390
535568.770 6850639.310 1125.060
535568.160 6850639.770 1125.000
535567.540 6850640.260 1124.870
535566.920 6850640.750 1124.860
535566.330 6850641.200 1124.860
535565.700 6850641.690 1124.610
535565.100 6850642.160 1124.410
535564.490 6850642.640 1124.120
535563.870 6850643.130 1123.880
535563.260 6850643.590 1123.580
535587.240 6850624.950 1121.170
535586.590 6850625.450 1122.240
535585.990 6850625.910 1122.600
535585.360 6850626.410 1122.590
535584.720 6850626.900 1124.320
535584.090 6850627.380 1124.820
535583.480 6850627.870 1125.120
535586.010 6850624.910 1121.920
535585.410 6850625.370 1122.740
535584.750 6850625.890 1122.700
535584.180 6850626.340 1122.670
535583.550 6850626.820 1122.720
535582.900 6850627.320 1124.710
535582.290 6850627.800 1125.200
535581.640 6850628.300 1125.660
535581.060 6850628.760 1125.470
535580.430 6850629.240 1125.250
535579.840 6850629.700 1125.030
535579.230 6850630.180 1124.780
535578.590 6850630.670 1124.630
535578.000 6850631.140 1124.680
535577.360 6850631.630 1124.610
535576.750 6850632.100 1124.610
535576.150 6850632.580 1124.590
535575.530 6850633.060 1124.520
535574.950 6850633.500 1124.480
535574.300 6850634.010 1124.490
535573.690 6850634.490 1124.450
535573.090 6850634.960 1124.410
535572.450 6850635.450 1124.190
535571.860 6850635.910 1124.340
535571.200 6850636.420 1125.300
535570.620 6850636.870 1125.790
535569.980 6850637.370 1125.540
535569.390 6850637.830 1125.290
535568.780 6850638.300 1125.060
535568.150 6850638.790 1124.970
535567.580 6850639.240 1124.850
535566.950 6850639.720 1124.720
535566.350 6850640.200 1124.660
535565.740 6850640.660 1124.620
535565.120 6850641.150 1124.690
535564.540 6850641.600 1124.370
535563.880 6850642.110 1124.170
535563.300 6850642.570 1123.770
535562.690 6850643.040 1123.510
535585.430 6850624.280 1121.670
535585.460 6850624.260 1120.020
535584.800 6850624.760 1122.550
535584.170 6850625.260 1122.560
535583.580 6850625.710 1122.600
535582.950 6850626.200 1122.480
535582.360 6850626.660 1122.640
535581.710 6850627.160 1125.370
535581.740 6850627.140 1123.410
535581.050 6850627.670 1125.530
535580.480 6850628.120 1125.390
535579.860 6850628.600 1125.190
535579.270 6850629.060 1124.690
535578.660 6850629.540 1124.540
535578.030 6850630.020 1124.490
535577.430 6850630.490 1124.490
535576.800 6850630.980 1124.540
535576.210 6850631.450 1124.550
535575.600 6850631.920 1124.510
535574.960 6850632.410 1124.460
535574.360 6850632.880 1124.400
535573.720 6850633.380 1124.420
535573.130 6850633.840 1124.210
535572.500 6850634.330 1124.280
535571.910 6850634.790 1124.270
535571.300 6850635.260 1124.460
535570.650 6850635.770 1125.400
535570.050 6850636.230 1125.710
535569.400 6850636.730 1125.580
535568.820 6850637.180 1125.350
535568.200 6850637.670 1125.150
535567.570 6850638.160 1124.880
535566.990 6850638.610 1124.810
535566.350 6850639.110 1124.710
535565.760 6850639.560 1124.580
535565.130 6850640.050 1124.460
535564.520 6850640.530 1124.310
535563.950 6850640.980 1124.050
535563.320 6850641.470 1123.970
535562.720 6850641.930 1123.780
535562.100 6850642.410 1123.570
535561.490 6850642.890 1123.450
535584.480 6850623.750 1118.640
535583.780 6850624.280 1121.460
535583.810 6850624.270 1120.250
535583.150 6850624.770 1122.260
535582.540 6850625.250 1122.080
535581.920 6850625.730 1122.090
535581.300 6850626.200 1123.400
535580.670 6850626.690 1123.470
535580.040 6850627.180 1125.080
535580.070 6850627.160 1123.460
535579.430 6850627.650 1124.610
535578.840 6850628.110 1124.360
535578.230 6850628.590 1124.280
535577.620 6850629.070 1124.310
535577.010 6850629.540 1124.350
535576.400 6850630.010 1124.300
535575.790 6850630.490 1124.380
535575.180 6850630.960 1124.400
535574.550 6850631.450 1124.350
535573.940 6850631.920 1124.280
535573.330 6850632.400 1124.280
535572.710 6850632.880 1124.310
535572.100 6850633.350 1124.340
535571.490 6850633.830 1124.300
535570.860 6850634.320 1124.190
535570.230 6850634.810 1125.190
535569.610 6850635.290 1125.540
535569.000 6850635.770 1125.630
535568.400 6850636.230 1125.480
535567.800 6850636.700 1125.360
535567.170 6850637.190 1125.180
535566.570 6850637.660 1124.960
535565.950 6850638.130 1124.890
535565.330 6850638.610 1124.810
535564.720 6850639.090 1124.570
535564.100 6850639.580 1124.460
535563.500 6850640.040 1124.220
535562.880 6850640.530 1123.930
535562.270 6850641.000 1123.760
535561.660 6850641.480 1123.620
535561.060 6850641.950 1123.480
535583.930 6850622.930 1117.720
535583.290 6850623.430 1118.080
535582.680 6850623.910 1119.090
535582.020 6850624.420 1120.330
535581.410 6850624.890 1120.960
535580.770 6850625.380 1121.440
535580.130 6850625.870 1122.360
535579.520 6850626.350 1123.190
535578.880 6850626.840 1123.160
535578.290 6850627.300 1123.080
535577.660 6850627.800 1123.510
535577.060 6850628.260 1123.640
535576.440 6850628.740 1123.840
535575.830 6850629.220 1123.820
535575.240 6850629.680 1124.010
535574.600 6850630.180 1124.060
535573.990 6850630.650 1124.180
535573.390 6850631.110 1124.100
535572.760 6850631.600 1124.070
535572.170 6850632.060 1124.120
535571.530 6850632.560 1124.180
535570.920 6850633.030 1124.170
535570.320 6850633.500 1124.070
535569.700 6850633.980 1124.220
535569.090 6850634.450 1125.460
535568.430 6850634.960 1125.600
535567.850 6850635.420 1125.660
535567.220 6850635.910 1125.400
535566.590 6850636.400 1125.050
535566.010 6850636.850 1124.890
535565.380 6850637.340 1124.790
535564.800 6850637.790 1124.670
535564.160 6850638.290 1124.510
535563.550 6850638.760 1124.440
535562.950 6850639.230 1124.380
535562.320 6850639.720 1124.110
535561.710 6850640.190 1123.990
535561.080 6850640.690 1123.850
535560.490 6850641.140 1123.640
535559.870 6850641.630 1123.450
535570.630 6850632.540 1124.090
535570.010 6850633.020 1124.110
535569.380 6850633.510 1124.330
535568.780 6850633.980 1125.050
535568.140 6850634.470 1125.070
535567.540 6850634.940 1125.080
535566.920 6850635.430 1125.150
535566.310 6850635.900 1125.160
535565.710 6850636.360 1124.950
535565.070 6850636.860 1124.690
535564.480 6850637.330 1124.570
535563.840 6850637.820 1124.580
535563.230 6850638.300 1124.530
535562.630 6850638.760 1124.520
535562.000 6850639.250 1124.330
535561.430 6850639.690 1124.300
535560.780 6850640.200 1124.120
535560.180 6850640.660 1123.920
535559.570 6850641.140 1123.610
535583.600 6850622.470 1117.840
535582.980 6850622.960 1118.120
535582.360 6850623.440 1118.460
535581.120 6850624.390 1120.530
535580.470 6850624.890 1121.230
535579.850 6850625.380 1121.550
535579.220 6850625.860 1122.330
535578.600 6850626.350 1122.360
535578.000 6850626.810 1122.860
535577.360 6850627.310 1122.850
535576.730 6850627.800 1123.160
535576.130 6850628.270 1123.200
535575.500 6850628.760 1123.450
535574.910 6850629.220 1123.670
535574.260 6850629.720 1123.770
535573.670 6850630.170 1124.010
535573.070 6850630.650 1123.900
535572.440 6850631.140 1123.990
535571.850 6850631.590 1124.050
535571.210 6850632.090 1124.040
535582.580 6850622.390 1118.040
535581.960 6850622.880 1118.240
535581.330 6850623.360 1118.730
535580.730 6850623.840 1118.980
535580.060 6850624.350 1120.600
535580.080 6850624.330 1119.150
535579.440 6850624.820 1121.000
535578.800 6850625.320 1121.510
535578.190 6850625.800 1121.510
535577.590 6850626.270 1122.000
535576.930 6850626.770 1122.310
535576.360 6850627.210 1122.760
535575.720 6850627.710 1123.000
535575.070 6850628.210 1123.280
535574.500 6850628.670 1123.410
535573.850 6850629.160 1123.650
535573.250 6850629.630 1123.760
535572.620 6850630.120 1123.800
535572.000 6850630.600 1123.900
535571.400 6850631.070 1123.920
535570.770 6850631.560 1123.990
535570.160 6850632.030 1123.980
535569.540 6850632.510 1124.090
535568.940 6850632.980 1124.200
535568.350 6850633.440 1124.610
535567.710 6850633.940 1124.900
535567.110 6850634.400 1124.980
535566.480 6850634.890 1124.940
535565.890 6850635.350 1124.990
535565.270 6850635.830 1124.940
535564.660 6850636.310 1124.630
535564.060 6850636.770 1124.520
535563.420 6850637.270 1124.470
535562.820 6850637.740 1124.430
535562.220 6850638.200 1124.440
535561.590 6850638.700 1124.360
535560.990 6850639.170 1124.540
535560.350 6850639.660 1124.370
535559.750 6850640.130 1124.160
535559.130 6850640.610 1123.820
535582.210 6850621.600 1117.840
535581.600 6850622.070 1117.870
535580.960 6850622.570 1118.100
535580.360 6850623.040 1118.570
535579.720 6850623.530 1118.850
535579.110 6850624.010 1119.260
535578.490 6850624.490 1119.420
535577.870 6850624.970 1119.520
535577.230 6850625.470 1121.170
535576.600 6850625.960 1121.520
535575.980 6850626.440 1121.840
535575.350 6850626.930 1122.210
535574.730 6850627.410 1122.520
535574.110 6850627.890 1122.810
535573.500 6850628.350 1123.040
535572.900 6850628.820 1123.130
535572.260 6850629.320 1123.380
535571.640 6850629.800 1123.600
535571.040 6850630.270 1123.740
535570.420 6850630.760 1123.580
535569.800 6850631.230 1123.790
535569.160 6850631.730 1123.890
535568.560 6850632.200 1124.000
535567.960 6850632.670 1124.100
535567.340 6850633.140 1124.100
535566.700 6850633.640 1124.510
535566.100 6850634.110 1124.650
535565.500 6850634.570 1124.630
535564.900 6850635.040 1124.560
535564.300 6850635.510 1124.590
535563.660 6850636.010 1124.400
535563.060 6850636.470 1124.310
535562.470 6850636.940 1124.320
535561.840 6850637.420 1124.310
535561.240 6850637.890 1124.350
535560.620 6850638.370 1124.430
535559.990 6850638.860 1124.630
535559.390 6850639.330 1124.340
535558.790 6850639.800 1124.230
535558.170 6850640.280 1124.000
535581.180 6850621.200 1117.950
535580.570 6850621.680 1117.950
535579.970 6850622.140 1118.170
535579.330 6850622.640 1118.400
535578.730 6850623.110 1118.920
535578.090 6850623.600 1119.320
535577.480 6850624.080 1119.480
535576.890 6850624.540 1119.520
535576.230 6850625.050 1120.500
535575.620 6850625.530 1121.080
535574.990 6850626.010 1121.250
535574.380 6850626.490 1121.930
535573.760 6850626.970 1122.000
535573.120 6850627.460 1122.180
535572.500 6850627.950 1122.710
535571.880 6850628.430 1122.760
535571.260 6850628.900 1122.660
535570.660 6850629.370 1122.800
535570.040 6850629.860 1123.090
535569.430 6850630.330 1123.630
535568.800 6850630.820 1123.640
535568.190 6850631.290 1123.760
535567.580 6850631.770 1123.790
535566.960 6850632.250 1124.030
535566.350 6850632.720 1123.940
535565.700 6850633.220 1123.850
535565.110 6850633.680 1124.030
535564.490 6850634.170 1123.850
535563.890 6850634.640 1123.970
535563.270 6850635.120 1124.290
535562.650 6850635.610 1124.260
535562.050 6850636.070 1124.210
535561.430 6850636.550 1124.200
535560.830 6850637.010 1124.210
535560.230 6850637.480 1124.190
535559.610 6850637.970 1124.260
535573.990 6850626.000 1120.930
535573.370 6850626.480 1121.230
535572.740 6850626.970 1121.910
535572.130 6850627.440 1122.240
535571.510 6850627.930 1121.520
535570.920 6850628.380 1121.880
535570.280 6850628.880 1122.510
535569.650 6850629.370 1122.720
535569.040 6850629.840 1123.100
535568.390 6850630.340 1123.230
535567.800 6850630.800 1123.540
535567.180 6850631.290 1123.370
535566.580 6850631.760 1123.410
535565.970 6850632.230 1123.800
535565.330 6850632.720 1123.810
535564.740 6850633.190 1123.630
535564.110 6850633.680 1123.520
535563.510 6850634.140 1123.440
535562.890 6850634.630 1123.440
535562.250 6850635.120 1123.240
535561.690 6850635.560 1123.150
535561.020 6850636.080 1124.000
535580.760 6850620.740 1118.000
535580.170 6850621.200 1117.980
535579.540 6850621.690 1118.130
535578.900 6850622.190 1118.310
535578.310 6850622.640 1118.640
535577.680 6850623.140 1119.060
535577.080 6850623.600 1119.390
535576.480 6850624.070 1119.360
535575.820 6850624.580 1120.190
535575.240 6850625.030 1120.300
535574.610 6850625.520 1120.230
535580.230 6850620.150 1117.850
535579.620 6850620.620 1117.890
535579.010 6850621.100 1118.010
535578.380 6850621.590 1118.260
535577.760 6850622.070 1118.540
535577.130 6850622.560 1118.780
535576.520 6850623.030 1119.140
535575.890 6850623.520 1119.230
535575.270 6850624.000 1119.320
535574.680 6850624.460 1119.650
535574.050 6850624.950 1119.890
535573.440 6850625.420 1120.010
535572.820 6850625.900 1120.510
535572.200 6850626.390 1121.130
535571.600 6850626.850 1121.240
535570.970 6850627.340 1121.060
535570.360 6850627.820 1121.440
535569.740 6850628.290 1122.080
535569.110 6850628.790 1122.300
535568.510 6850629.260 1122.430
535567.880 6850629.750 1122.760
535567.290 6850630.200 1122.860
535566.650 6850630.690 1122.930
535566.030 6850631.180 1122.820
535565.410 6850631.660 1122.920
535564.790 6850632.140 1123.070
535564.180 6850632.610 1123.160
535563.560 6850633.100 1123.320
535562.960 6850633.570 1123.180
535562.360 6850634.040 1123.110
535579.140 6850619.700 1117.950
535578.530 6850620.170 1118.030
535577.930 6850620.640 1118.110
535577.290 6850621.140 1118.290
535576.670 6850621.620 1118.450
535576.060 6850622.100 1118.600
535575.440 6850622.580 1118.810
535574.820 6850623.060 1119.020
535574.190 6850623.550 1119.200
535573.570 6850624.030 1119.450
535572.950 6850624.510 1119.600
535572.340 6850624.980 1119.620
535571.720 6850625.460 1119.780
535571.120 6850625.940 1120.070
535570.500 6850626.420 1120.380
535569.880 6850626.900 1120.460
535569.260 6850627.370 1121.560
535568.650 6850627.850 1121.760
535568.030 6850628.330 1121.860
535567.420 6850628.810 1121.970
535566.800 6850629.290 1122.140
535566.200 6850629.760 1122.190
535565.570 6850630.240 1122.280
535564.950 6850630.730 1122.250
535564.340 6850631.200 1122.590
535572.970 6850623.140 1118.950
535572.380 6850623.600 1119.140
535571.740 6850624.090 1119.250
535571.130 6850624.580 1119.380
535570.510 6850625.050 1119.440
535569.890 6850625.530 1119.640
535569.280 6850626.010 1119.750
535568.640 6850626.500 1121.190
535568.660 6850626.490 1119.710
535568.030 6850626.980 1121.260
535567.410 6850627.460 1121.310
535566.800 6850627.940 1121.290
535578.560 6850618.800 1117.920
535577.910 6850619.310 1118.000
535577.300 6850619.770 1118.200
535576.690 6850620.250 1118.200
535576.050 6850620.750 1118.280
535575.460 6850621.210 1118.380
535574.840 6850621.690 1118.520
535574.230 6850622.160 1118.670
535573.600 6850622.650 1118.710
535577.450 6850618.680 1118.080
535576.830 6850619.160 1118.180
535576.230 6850619.630 1118.220
535575.600 6850620.120 1118.280
535574.990 6850620.600 1118.490
535574.360 6850621.090 1118.620
535573.750 6850621.560 1118.700
535573.110 6850622.060 1118.760
535572.480 6850622.540 1118.910
535571.900 6850623.000 1118.990
535571.260 6850623.490 1119.090
535570.680 6850623.950 1119.200
535570.040 6850624.440 1119.270
535569.420 6850624.930 1119.400
535568.840 6850625.380 1119.450
535568.170 6850625.900 1119.510
535576.970 6850617.990 1118.220
535576.390 6850618.440 1118.230
535575.760 6850618.930 1118.220
535575.120 6850619.420 1118.320
535574.540 6850619.880 1118.410
535573.900 6850620.380 1118.590
535573.300 6850620.840 1118.650
535572.670 6850621.330 1118.750
535572.050 6850621.810 1118.860
535571.450 6850622.280 1118.900
535570.810 6850622.770 1119.030
535570.220 6850623.240 1119.110
535576.130 6850617.610 1118.200
535575.500 6850618.100 1118.290
535574.880 6850618.580 1118.380
535574.290 6850619.040 1118.460
535573.670 6850619.530 1118.480
535573.060 6850620.000 1118.600
535572.430 6850620.480 1118.710
535571.830 6850620.950 1118.800
535575.880 6850616.830 1118.060
535575.250 6850617.320 1118.240
535574.630 6850617.800 1118.390
535574.040 6850618.260 1118.510
535573.390 6850618.760 1118.630
535575.100 6850616.870 1118.280
535574.500 6850617.340 1118.390
535583.190 6850658.330 1120.820
535582.380 6850657.360 1120.900
535583.150 6850657.230 1120.860
535583.950 6850657.080 1120.720
535580.710 6850656.660 1121.260
535581.480 6850656.530 1121.120
535582.270 6850656.390 1120.960
535583.040 6850656.250 1120.930
535583.830 6850656.110 1120.840
535584.590 6850655.980 1120.780
535580.520 6850655.960 1121.400
535581.320 6850655.820 1121.400
535582.030 6850655.700 1121.090
535582.820 6850655.560 1120.970
535583.620 6850655.430 1120.880
535584.350 6850655.290 1120.820
535585.150 6850655.160 1120.750
535579.540 6850655.530 1121.580
535580.280 6850655.390 1121.580
535581.070 6850655.250 1121.530
535581.810 6850655.120 1121.410
535582.630 6850654.980 1121.120
535583.390 6850654.850 1120.960
535584.170 6850654.710 1120.850
535584.950 6850654.570 1120.790
535585.680 6850654.440 1120.630
535578.700 6850654.820 1121.870
535579.450 6850654.690 1121.850
535580.210 6850654.560 1121.660
535581.000 6850654.430 1121.500
535581.750 6850654.290 1121.400
535582.530 6850654.160 1121.190
535583.310 6850654.020 1121.060
535584.080 6850653.880 1120.910
535584.850 6850653.750 1120.850
535585.600 6850653.620 1120.690
535586.420 6850653.470 1120.600
535577.830 6850654.270 1122.010
535578.630 6850654.130 1122.040
535579.380 6850653.990 1121.960
535580.140 6850653.860 1121.790
535580.890 6850653.730 1121.610
535581.650 6850653.600 1121.430
535582.450 6850653.450 1121.180
535583.200 6850653.320 1121.120
535583.960 6850653.190 1121.030
535584.730 6850653.060 1120.970
535585.510 6850652.920 1120.920
535586.300 6850652.780 1120.790
535587.050 6850652.650 1120.720
535576.650 6850653.650 1122.090
535577.400 6850653.510 1122.110
535578.210 6850653.370 1122.080
535578.940 6850653.250 1122.020
535579.740 6850653.100 1121.960
535580.490 6850652.970 1121.800
535581.260 6850652.840 1121.660
535582.050 6850652.700 1121.570
535582.780 6850652.580 1121.270
535583.570 6850652.440 1121.180
535584.330 6850652.310 1121.180
535585.080 6850652.170 1121.110
535585.860 6850652.040 1121.040
535586.590 6850651.900 1120.960
535587.420 6850651.760 1120.860
535576.270 6850652.920 1122.370
535577.030 6850652.790 1122.350
535577.840 6850652.650 1122.360
535578.580 6850652.520 1122.310
535579.360 6850652.380 1122.270
535580.130 6850652.250 1122.150
535580.910 6850652.110 1122.160
535581.690 6850651.980 1122.320
535582.440 6850651.840 1121.830
535583.240 6850651.710 1121.510
535583.980 6850651.580 1121.380
535584.770 6850651.440 1121.480
535585.530 6850651.310 1121.330
535586.270 6850651.170 1121.290
535587.050 6850651.030 1121.200
535587.790 6850650.910 1121.270
535588.590 6850650.770 1121.250
535585.370 6850650.150 1121.600
535586.110 6850650.020 1121.540
535586.910 6850649.880 1121.500
535587.650 6850649.750 1121.380
535588.430 6850649.620 1121.330
535589.200 6850649.480 1121.280
535574.540 6850652.050 1122.500
535575.350 6850651.910 1122.560
535576.100 6850651.780 1122.650
535576.870 6850651.640 1122.670
535577.650 6850651.500 1122.670
535578.420 6850651.370 1122.570
535579.180 6850651.230 1122.630
535579.950 6850651.100 1122.560
535580.690 6850650.970 1122.660
535581.490 6850650.830 1122.490
535582.240 6850650.700 1122.280
535583.020 6850650.560 1121.940
535583.800 6850650.430 1121.630
535584.590 6850650.290 1121.670
535573.810 6850651.150 1122.810
535574.540 6850651.020 1123.000
535575.320 6850650.880 1123.100
535576.070 6850650.750 1123.100
535576.850 6850650.610 1123.050
535577.630 6850650.470 1123.150
535578.370 6850650.340 1123.130
535579.150 6850650.210 1123.320
535579.900 6850650.070 1123.340
535580.700 6850649.930 1123.460
535581.470 6850649.800 1123.420
535582.240 6850649.660 1122.750
535583.020 6850649.530 1122.840
535583.780 6850649.390 1122.500
535584.570 6850649.260 1122.180
535585.320 6850649.130 1122.290
535586.090 6850648.990 1122.100
535586.880 6850648.860 1121.950
535587.630 6850648.720 1121.720
535588.420 6850648.580 1121.500
535589.190 6850648.450 1121.420
